0 0 0
0 0 0
0 0 0
4.76 0 0
4.76 0 0
4.76 0 0
4.76 0 0
4.75 0 0
4.75 0 0
4.75 0 0
4.75 0 0
4.75 0 0
4.71 0 0
4.71 0 0
4.71 0 0
4.71 0 0
4.75 0 0
4.75 0 0
4.75 0 0
4.75 0 0
4.75 0 0
4.74 0 0
4.74 0 0
4.74 0 0
4.74 0 0
4.74 0 0
4.74 0 0
4.74 0 0
4.74 0 0
4.74 0 0
4.75 0 0
4.75 0 0
4.75 0 0
4.75 0 0
4.75 0 0
4.75 0 0
4.75 0 0
4.75 0 0
4.75 0 0
4.73 0 0
4.73 0 0
4.73 0 0
4.73 0 0
4.73 0 0
4.74 0 0
4.74 0 0
4.74 0 0
4.74 0 0
4.74 0 0
4.66488 1.04272 0
4.62983 1.18874 0
4.5902 1.33358 0
4.54605 1.4771 0
4.47859 1.61239 0
4.42574 1.75227 0
4.36851 1.89042 0
4.30698 2.02671 0
4.24119 2.16099 0
4.17122 2.29315 0
4.09713 2.42304 0
4.019 2.55054 0
3.9369 2.67552 0
3.81047 2.76847 0
3.72163 2.88679 0
3.62912 3.00227 0
3.53302 3.11478 0
3.43344 3.22422 0
3.36583 3.36583 0
3.25844 3.46989 0
3.14784 3.57053 0
3.03414 3.66764 0
2.89292 3.72953 0
2.77435 3.81856 0
2.65303 3.90382 0
2.5291 3.98523 0
2.40268 4.0627 0
2.30278 4.18875 0
2.17007 4.25901 0
2.03522 4.32507 0
1.75964 4.44433 0
1.60562 4.45977 0
1.46474 4.50801 0
1.17879 4.59108 0
1.034 4.62585 0
0.888188 4.65604 0
0.594079 4.70262 0
0.446074 4.71896 0
0.297627 4.73065 0
2.90241e-16 4.74 0
-0.148887 4.73766 0
-0.446074 4.71896 0
-0.594079 4.70262 0
-0.741499 4.68164 0
-1.034 4.62585 0
-1.1763 4.5814 0
-1.31963 4.54219 0
-1.46165 4.4985 0
-1.60223 4.45037 0
-1.60223 4.45037 0
-1.74491 4.40714 0
-1.88248 4.35016 0
-2.01819 4.28888 0
-2.15191 4.22337 0
-2.26906 4.1274 0
-2.39758 4.0541 0
-2.52374 3.97678 0
-2.64741 3.89555 0
-2.76847 3.81047 0
-2.90518 3.74533 0
-3.02139 3.65223 0
-3.13462 3.55553 0
-3.24475 3.45531 0
-3.35169 3.35169 0
-3.44802 3.23791 0
-3.54803 3.128 0
-3.64453 3.01502 0
-3.73743 2.89905 0
-3.82665 2.78022 0
-3.91209 2.65865 0
-3.99367 2.53446 0
-4.07131 2.40777 0
-4.14493 2.2787 0
-4.21446 2.14738 0
-4.27983 2.01394 0
-4.34098 1.87851 0
-4.39784 1.74123 0
-4.44096 1.59884 0
-4.48899 1.45856 0
-4.53259 1.31684 0
-4.57171 1.17382 0
-4.60633 1.02964 0
-4.65604 0.888188 0
-4.68164 0.741499 0
-4.70262 0.594079 0
-4.71896 0.446073 0
-4.73065 0.297628 0
-4.74766 0.149201 0
-4.75 5.81707e-16 0
-4.74766 -0.149201 0
-4.74063 -0.298255 0
-4.74883 -0.448896 0
-4.73239 -0.597839 0
-4.71127 -0.746192 0
-4.68551 -0.893809 0
-4.65512 -1.04054 0
-4.59108 -1.17879 0
-4.55179 -1.32242 0
-4.50801 -1.46474 0
-4.45977 -1.60562 0
-4.39784 -1.74123 0
-4.34098 -1.87851 0
-4.27983 -2.01394 0
-4.21446 -2.14738 0
-4.14493 -2.2787 0
-4.07131 -2.40777 0
-3.99367 -2.53446 0
-3.91209 -2.65865 0
-3.82665 -2.78022 0
-3.73743 -2.89905 0
-3.64453 -3.01502 0
-3.54803 -3.128 0
-3.44802 -3.23791 0
-3.34461 -3.34461 0
-3.2516 -3.4626 0
-3.14123 -3.56303 0
-3.02776 -3.65994 0
-2.79198 -3.84283 0
-2.67552 -3.9369 0
-2.42304 -4.09713 0
-2.29315 -4.17122 0
-2.29315 -4.17122 0
-2.15645 -4.23228 0
-2.02245 -4.29793 0
-1.88645 -4.35933 0
-1.74859 -4.41644 0
-1.60901 -4.46918 0
-1.46783 -4.51752 0
-1.32521 -4.5614 0
-1.18128 -4.60077 0
-1.03618 -4.6356 0
-0.89006 -4.66586 0
-0.743064 -4.69152 0
-0.595334 -4.71254 0
-0.447014 -4.72892 0
-0.298255 -4.74063 0
-0.1492 -4.74766 0
-8.72561e-16 -4.75 0
0.1492 -4.74766 0
0.298255 -4.74063 0
0.447014 -4.72892 0
0.595334 -4.71254 0
0.743064 -4.69152 0
0.89006 -4.66586 0
1.03618 -4.6356 0
1.17879 -4.59108 0
1.32242 -4.55179 0
1.46474 -4.50801 0
1.60562 -4.45977 0
1.74491 -4.40714 0
1.88248 -4.35016 0
2.01819 -4.28888 0
2.15191 -4.22337 0
2.28351 -4.15369 0
2.41286 -4.07992 0
2.53982 -4.00211 0
2.7861 -3.83474 0
2.90518 -3.74534 0
3.04051 -3.67535 0
3.26529 -3.47718 0
3.3729 -3.3729 0
3.45531 -3.24475 0
3.65223 -3.02139 0
3.74534 -2.90518 0
3.81047 -2.76847 0
3.97678 -2.52374 0
4.05409 -2.39759 0
4.12741 -2.26906 0
4.19664 -2.1383 0
4.29793 -2.02245 0
4.35933 -1.88645 0
4.41644 -1.74859 0
4.46918 -1.609 0
4.51752 -1.46783 0
4.5902 -1.33358 0
4.62983 -1.18874 0
4.66488 -1.04273 0
4.69533 -0.895682 0
4.69152 -0.743064 0
4.71254 -0.595334 0
4.72892 -0.447014 0
4.74063 -0.298255 0
4.74766 -0.1492 0
4.76 -1.16586e-15 0
4.75693 0.149492 0.0830735
4.74988 0.298837 0.0830735
4.73815 0.447887 0.0830735
4.72175 0.596495 0.0830735
4.63155 0.733566 0.0818518
4.60623 0.878685 0.0818518
4.57635 1.02294 0.0818518
4.54196 1.16618 0.0818518
4.5319 1.31664 0.0823754
4.4883 1.45834 0.0823754
4.44028 1.5986 0.0823754
4.38788 1.73728 0.0823754
4.33114 1.87425 0.0823754
4.25204 2.00086 0.0820263
4.18709 2.13343 0.0820263
4.11801 2.2639 0.0820263
4.04487 2.39213 0.0820263
3.98462 2.52872 0.0823754
3.90323 2.65263 0.0823754
3.81798 2.77392 0.0823754
3.72896 2.89248 0.0823754
3.56998 3.14737 0.0830735
3.46936 3.25795 0.0830735
3.36532 3.36532 0.0830735
3.10108 3.51749 0.0818518
2.98906 3.61316 0.0818518
2.75629 3.79371 0.0818518
2.66387 3.91976 0.0827244
2.53943 4.0015 0.0827244
2.28316 4.15306 0.0827244
2.15159 4.22273 0.0827244
2.01789 4.28823 0.0827244
1.89014 4.36785 0.0830735
1.75201 4.42506 0.0830735
1.61215 4.47791 0.0830735
1.61215 4.47791 0.0830735
1.4707 4.52634 0.0830735
1.32222 4.5511 0.0827244
1.17861 4.59038 0.0827244
1.03384 4.62514 0.0827244
0.888052 4.65533 0.0827244
0.738258 4.66118 0.0823754
0.591482 4.68207 0.0823754
0.444124 4.69834 0.0823754
0.296326 4.70997 0.0823754
0.148236 4.71695 0.0823754
2.92646e-16 4.77927 0.0834225
-0.150121 4.77691 0.0834225
-0.300093 4.76984 0.0834225
-0.449769 4.75806 0.0834225
-0.599001 4.74159 0.0834225
-0.741386 4.68093 0.0827244
-0.888052 4.65533 0.0827244
-1.03384 4.62514 0.0827244
-1.17861 4.59038 0.0827244
-1.31664 4.5319 0.0823754
-1.45834 4.4883 0.0823754
-1.5986 4.44028 0.0823754
-1.73728 4.38788 0.0823754
-1.87425 4.33114 0.0823754
-2.01363 4.27918 0.0825499
-2.14705 4.21382 0.0825499
-2.27835 4.1443 0.0825499
-2.4074 4.07069 0.0825499
-2.53407 3.99306 0.0825499
-2.65825 3.9115 0.0825499
-2.7798 3.82607 0.0825499
-3.01456 3.64397 0.0825499
-3.16059 3.58499 0.0834225
-3.27164 3.48394 0.0834225
-3.48394 3.27164 0.0834225
-3.53249 3.1143 0.0822008
-3.62856 3.00181 0.0822008
-3.80989 2.76805 0.0822008
-3.92803 2.66949 0.0828989
-4.0879 2.41758 0.0828989
-4.16182 2.28798 0.0828989
-4.23164 2.15613 0.0828989
-4.29727 2.02214 0.0828989
-4.34032 1.87822 0.0825499
-4.39717 1.74096 0.0825499
-4.44969 1.60199 0.0825499
-4.49781 1.46143 0.0825499
-4.5415 1.31943 0.0825499
-4.5807 1.17612 0.0825499
-4.61538 1.03166 0.0825499
-4.64551 0.886179 0.0825499
-4.67105 0.739822 0.0825499
-4.69199 0.592736 0.0825499
-4.70829 0.445064 0.0825499
-4.71995 0.296954 0.0825499
-4.72695 0.148551 0.0825499
-4.72928 5.7917e-16 0.0825499
-4.69697 -0.147608 0.0820263
-4.69001 -0.295071 0.0820263
-4.67843 -0.442241 0.0820263
-4.66223 -0.588976 0.0820263
-4.66223 -0.588976 0.0820263
-4.66118 -0.738258 0.0823754
-4.63569 -0.884305 0.0823754
-4.60563 -1.02948 0.0823754
-4.57102 -1.17364 0.0823754
-4.5319 -1.31664 0.0823754
-4.4883 -1.45834 0.0823754
-4.44028 -1.5986 0.0823754
-4.38788 -1.73728 0.0823754
-4.33114 -1.87425 0.0823754
-4.27013 -2.00937 0.0823754
-4.20491 -2.14251 0.0823754
-4.13554 -2.27353 0.0823754
-4.06208 -2.40231 0.0823754
-3.98462 -2.52872 0.0823754
-3.92803 -2.66949 0.0828989
-3.75266 -2.91087 0.0828989
-3.65938 -3.0273 0.0828989
-3.53999 -3.12092 0.0823754
-3.33704 -3.33704 0.0823754
-3.23057 -3.44021 0.0823754
-3.13414 -3.55499 0.0827244
-2.90474 -3.74476 0.0827244
-2.78568 -3.83416 0.0827244
-2.53943 -4.0015 0.0827244
-2.41249 -4.0793 0.0827244
-2.28316 -4.15306 0.0827244
-2.15159 -4.22273 0.0827244
-2.01789 -4.28823 0.0827244
-1.88219 -4.34949 0.0827244
-1.74464 -4.40647 0.0827244
-1.60537 -4.4591 0.0827244
-1.46452 -4.50732 0.0827244
-1.32222 -4.5511 0.0827244
-1.17612 -4.5807 0.0825499
-1.03166 -4.61538 0.0825499
-0.886178 -4.64551 0.0825499
-0.739822 -4.67105 0.0825499
-0.592737 -4.69199 0.0825499
-0.444123 -4.69834 0.0823754
-0.296327 -4.70997 0.0823754
-0.148235 -4.71695 0.0823754
-8.66918e-16 -4.71928 0.0823754
0.149177 -4.74693 0.0828989
0.29821 -4.7399 0.0828989
0.446946 -4.7282 0.0828989
0.595243 -4.71183 0.0828989
0.742951 -4.6908 0.0828989
0.889925 -4.66515 0.0828989
1.03602 -4.6349 0.0828989
1.1811 -4.60007 0.0828989
1.32501 -4.5607 0.0828989
1.46761 -4.51683 0.0828989
1.60199 -4.44969 0.0825499
1.74096 -4.39717 0.0825499
1.87822 -4.34032 0.0825499
2.01363 -4.27918 0.0825499
2.14705 -4.21382 0.0825499
2.27835 -4.1443 0.0825499
2.4074 -4.07069 0.0825499
2.53407 -3.99306 0.0825499
2.65825 -3.91149 0.0825499
2.76805 -3.80989 0.0822008
2.88635 -3.72106 0.0822008
3.00181 -3.62856 0.0822008
3.25795 -3.46936 0.0830735
3.36532 -3.36532 0.0830735
3.46936 -3.25795 0.0830735
3.65938 -3.0273 0.0828989
3.75267 -2.91086 0.0828989
3.84225 -2.79155 0.0828989
3.92803 -2.66949 0.0828989
4.00995 -2.54479 0.0828989
4.05348 -2.39722 0.0822008
4.12678 -2.26871 0.0822008
4.196 -2.13797 0.0822008
4.26109 -2.00512 0.0822008
4.32197 -1.87028 0.0822008
4.38788 -1.73728 0.0823754
4.44028 -1.5986 0.0823754
4.4883 -1.45834 0.0823754
4.5319 -1.31664 0.0823754
4.57102 -1.17364 0.0823754
4.64466 -1.0382 0.0830735
4.67498 -0.891798 0.0830735
4.70068 -0.744515 0.0830735
4.72175 -0.596496 0.0830735
4.75806 -0.449769 0.0834225
4.76984 -0.300094 0.0834225
4.77691 -0.15012 0.0834225
4.77927 -1.17058e-15 0.0834225
4.77473 0.150052 0.16682
4.66792 0.293681 0.16333
4.65639 0.440159 0.16333
4.64027 0.586202 0.16333
4.61957 0.731667 0.16333
4.5943 0.87641 0.16333
4.59377 1.02683 0.164377
4.55925 1.17062 0.164377
4.52023 1.31325 0.164377
4.47675 1.45458 0.164377
4.43825 1.59787 0.164726
4.38587 1.73649 0.164726
4.32916 1.8734 0.164726
4.26818 2.00845 0.164726
4.21189 2.14607 0.165075
4.14241 2.27731 0.165075
4.06883 2.4063 0.165075
3.90971 2.65703 0.165075
3.81623 2.77266 0.164726
3.72726 2.89116 0.164726
3.53837 3.11949 0.164726
3.43864 3.22909 0.164726
3.22909 3.43864 0.164726
3.11949 3.53837 0.164726
3.02592 3.65771 0.165773
2.79028 3.84049 0.165773
2.66827 3.92624 0.165773
2.54363 4.00811 0.165773
2.41647 4.08603 0.165773
2.27249 4.13365 0.164726
2.14153 4.20299 0.164726
2.00845 4.26818 0.164726
2.00845 4.26818 0.164726
1.8734 4.32916 0.164726
1.74017 4.39516 0.165075
1.60125 4.44765 0.165075
1.46076 4.49576 0.165075
1.31882 4.53942 0.165075
1.17559 4.57861 0.165075
1.03337 4.62303 0.165424
0.887647 4.6532 0.165424
0.741048 4.67879 0.165424
0.593717 4.69976 0.165424
0.445802 4.71609 0.165424
0.294308 4.67789 0.163679
0.147227 4.68483 0.163679
2.87005e-16 4.68714 0.163679
-0.147227 4.68483 0.163679
-0.294308 4.67789 0.163679
-0.441099 4.66634 0.163679
-0.587455 4.65018 0.163679
-0.733231 4.62944 0.163679
-0.878283 4.60412 0.163679
-1.03773 4.64253 0.166122
-1.18304 4.60765 0.166122
-1.32719 4.56821 0.166122
-1.47002 4.52427 0.166122
-1.60464 4.45706 0.165424
-1.74385 4.40446 0.165424
-1.88133 4.34751 0.165424
-2.01696 4.28627 0.165424
-2.1506 4.2208 0.165424
-2.26768 4.12489 0.164377
-2.52221 3.97436 0.164377
-2.6458 3.89318 0.164377
-2.76678 3.80815 0.164377
-3.00044 3.62691 0.164377
-3.11288 3.53087 0.164377
-3.24278 3.45321 0.165424
-3.45321 3.24278 0.165424
-3.55336 3.13271 0.165424
-3.65001 3.01955 0.165424
-3.81623 2.77266 0.164726
-3.90144 2.65142 0.164726
-3.9828 2.52756 0.164726
-4.06023 2.40121 0.164726
-4.15992 2.28694 0.165773
-4.2297 2.15514 0.165773
-4.29531 2.02122 0.165773
-4.35668 1.8853 0.165773
-4.41375 1.74753 0.165773
-4.45706 1.60464 0.165424
-4.50526 1.46385 0.165424
-4.50526 1.46385 0.165424
-4.54902 1.32161 0.165424
-4.58829 1.17807 0.165424
-4.62303 1.03337 0.165424
-4.6532 0.887647 0.165424
-4.67879 0.741048 0.165424
-4.69976 0.593717 0.165424
-4.71609 0.445801 0.165424
-4.68787 0.294936 0.164028
-4.69482 0.147541 0.164028
-4.69714 5.75233e-16 0.164028
-4.69482 -0.147541 0.164028
-4.68787 -0.294936 0.164028
-4.67629 -0.442039 0.164028
-4.6601 -0.588707 0.164028
-4.63931 -0.734794 0.164028
-4.61394 -0.880156 0.164028
-4.64253 -1.03773 0.166122
-4.60765 -1.18304 0.166122
-4.56821 -1.32719 0.166122
-4.52427 -1.47002 0.166122
-4.47586 -1.61141 0.166122
-4.40446 -1.74385 0.165424
-4.34751 -1.88133 0.165424
-4.28627 -2.01696 0.165424
-4.2208 -2.1506 0.165424
-4.13365 -2.27249 0.164726
-3.9828 -2.52756 0.164726
-3.90144 -2.65142 0.164726
-3.84049 -2.79028 0.165773
-3.65771 -3.02592 0.165773
-3.56086 -3.13932 0.165773
-3.46049 -3.24962 0.165773
-3.22225 -3.43135 0.164377
-3.11288 -3.53087 0.164377
-3.00044 -3.62691 0.164377
-2.76678 -3.80815 0.164377
-2.6458 -3.89318 0.164377
-2.52221 -3.97436 0.164377
-2.39613 -4.05163 0.164377
-2.26768 -4.12489 0.164377
-2.14607 -4.21189 0.165075
-2.01271 -4.27723 0.165075
-1.87736 -4.33834 0.165075
-1.74017 -4.39516 0.165075
-1.74017 -4.39516 0.165075
-1.60464 -4.45706 0.165424
-1.46385 -4.50526 0.165424
-1.32161 -4.54902 0.165424
-1.17807 -4.58829 0.165424
-1.02901 -4.60352 0.164726
-0.8839 -4.63357 0.164726
-0.737921 -4.65905 0.164726
-0.591213 -4.67993 0.164726
-0.44392 -4.69619 0.164726
-0.296191 -4.70782 0.164726
-0.148167 -4.7148 0.164726
-8.66522e-16 -4.71712 0.164726
0.148167 -4.7148 0.164726
0.296191 -4.70782 0.164726
0.442039 -4.67629 0.164028
0.588708 -4.6601 0.164028
0.734794 -4.63931 0.164028
0.880155 -4.61394 0.164028
1.02683 -4.59377 0.164377
1.17062 -4.55925 0.164377
1.31325 -4.52023 0.164377
1.45458 -4.47675 0.164377
1.59448 -4.42885 0.164377
1.74017 -4.39516 0.165075
1.87736 -4.33834 0.165075
2.01271 -4.27722 0.165075
2.14607 -4.21189 0.165075
2.28694 -4.15992 0.165773
2.54363 -4.00811 0.165773
2.66827 -3.92624 0.165773
2.79028 -3.84049 0.165773
3.03866 -3.67311 0.166471
3.15254 -3.57585 0.166471
3.2633 -3.47506 0.166471
3.43864 -3.22909 0.164726
3.53837 -3.11949 0.164726
3.72726 -2.89116 0.164726
3.80815 -2.76678 0.164377
3.89318 -2.6458 0.164377
3.97436 -2.52221 0.164377
4.05163 -2.39613 0.164377
4.12489 -2.26768 0.164377
4.21189 -2.14607 0.165075
4.27722 -2.01271 0.165075
4.33834 -1.87736 0.165075
4.39516 -1.74017 0.165075
4.44766 -1.60125 0.165075
4.47675 -1.45458 0.164377
4.52023 -1.31325 0.164377
4.55925 -1.17062 0.164377
4.59377 -1.02683 0.164377
4.62375 -0.882027 0.164377
4.61957 -0.731667 0.16333
4.64027 -0.586203 0.16333
4.65639 -0.440158 0.16333
4.66792 -0.293681 0.16333
4.7148 -0.148167 0.164726
4.71712 -1.15536e-15 0.164726
4.71121 0.148056 0.247026
4.70423 0.295965 0.247026
4.69261 0.443582 0.247026
4.68627 0.592014 0.247549
4.66536 0.738921 0.247549
4.63985 0.885099 0.247549
4.60976 1.0304 0.247549
4.57512 1.17469 0.247549
4.53596 1.31782 0.247549
4.49233 1.45965 0.247549
4.44427 1.60003 0.247549
4.39182 1.73884 0.247549
4.32587 1.87197 0.247026
4.26493 2.00692 0.247026
4.19979 2.1399 0.247026
4.1305 2.27076 0.247026
4.04854 2.3943 0.246502
3.97133 2.52029 0.246502
3.89021 2.64378 0.246502
3.71653 2.88284 0.246502
3.61645 2.99179 0.245979
3.52069 3.10391 0.245979
3.31885 3.31885 0.245979
3.24714 3.45786 0.248596
3.13693 3.55814 0.248596
3.02361 3.65492 0.248596
2.90732 3.74809 0.248596
2.78815 3.83756 0.248596
2.62695 3.86543 0.244932
2.50423 3.94604 0.244932
2.37905 4.02275 0.244932
2.25152 4.09549 0.244932
2.12176 4.1642 0.244932
2.01118 4.27397 0.247549
1.87594 4.33503 0.247549
1.73884 4.39182 0.247549
1.60003 4.44427 0.247549
1.45965 4.49233 0.247549
1.32339 4.55514 0.248596
1.17966 4.59446 0.248596
1.03476 4.62925 0.248596
0.888842 4.65947 0.248596
0.738921 4.66536 0.247549
0.592013 4.68627 0.247549
0.444522 4.70255 0.247549
0.296592 4.7142 0.247549
0.14837 4.72119 0.247549
2.88621e-16 4.71353 0.247026
-0.148056 4.71121 0.247026
-0.295965 4.70423 0.247026
-0.443583 4.69261 0.247026
-0.58951 4.66646 0.246502
-0.735797 4.64564 0.246502
-0.881357 4.62023 0.246502
-1.02605 4.59027 0.246502
-1.16972 4.55577 0.246502
-1.30389 4.48802 0.244932
-1.44422 4.44484 0.244932
-1.58312 4.39729 0.244932
-1.72046 4.34539 0.244932
-1.868 4.3167 0.246502
-2.00267 4.2559 0.246502
-2.26595 4.12175 0.246502
-2.38413 4.03135 0.245456
-2.50958 3.95447 0.245456
-2.63256 3.87369 0.245456
-2.63256 3.87369 0.245456
-2.63256 3.87369 0.245456
-2.63256 3.87369 0.245456
-2.63256 3.87369 0.245456
-2.65501 3.90673 0.247549
-2.65501 3.90673 0.247549
-2.65501 3.90673 0.247549
