-0.57836 4.57819 0.485012
-0.72188 4.55777 0.485012
-1.00664 4.50345 0.485012
-1.15255 4.48887 0.487103
-1.29298 4.45045 0.487103
-1.56987 4.36049 0.487103
-1.70606 4.30902 0.487103
-1.96056 4.1664 0.483967
-2.09046 4.10276 0.483967
-2.2183 4.03507 0.483967
-2.34395 3.9634 0.483967
-2.49926 3.93821 0.490238
-2.62173 3.85776 0.490238
-2.74161 3.7735 0.490238
-2.85879 3.68553 0.490238
-2.97314 3.59391 0.490238
-3.0451 3.45399 0.483967
-3.15209 3.35664 0.483967
-3.25597 3.25597 0.483967
-3.35664 3.15209 0.483967
-3.45399 3.0451 0.483967
-3.54027 2.92877 0.482921
-3.63052 2.81612 0.482921
-3.71718 2.70069 0.482921
-3.80018 2.5826 0.482921
-3.89622 2.47262 0.485012
-3.97196 2.34901 0.485012
-4.04379 2.22309 0.485012
-4.11162 2.09498 0.485012
-4.1754 1.96479 0.485012
-4.18029 1.80897 0.47874
-4.23505 1.67677 0.47874
-4.28563 1.54292 0.47874
-4.33198 1.40754 0.47874
-4.4218 1.28465 0.483967
-4.45997 1.14513 0.483967
-4.49374 1.00447 0.483967
-4.52308 0.862823 0.483967
-4.54795 0.720324 0.483967
-4.57819 0.57836 0.485012
-4.5941 0.43427 0.485012
-4.60548 0.289752 0.485012
-4.6123 0.144948 0.485012
-4.61458 5.65123e-16 0.485012
-4.6123 -0.144948 0.485012
-4.5941 -0.43427 0.485012
-4.56833 -0.577114 0.483967
-4.54795 -0.720324 0.483967
-4.49374 -1.00447 0.483967
-4.45997 -1.14513 0.483967
-4.4218 -1.28465 0.483967
-4.33241 -1.55977 0.483967
-4.28128 -1.69508 0.483967
-4.23505 -1.83267 0.485012
-4.11162 -2.09498 0.485012
-4.04379 -2.22309 0.485012
-3.89622 -2.47262 0.485012
-3.79195 -2.57701 0.481876
-3.70914 -2.69485 0.481876
-3.53261 -2.92243 0.481876
-3.44653 -3.03852 0.482921
-3.34939 -3.14528 0.482921
-3.24894 -3.24894 0.482921
-3.14528 -3.34939 0.482921
-3.03852 -3.44653 0.482921
-2.94778 -3.56326 0.486057
-2.83441 -3.65409 0.486057
-2.71823 -3.74132 0.486057
-2.59937 -3.82486 0.486057
-2.46729 -3.88782 0.483967
-2.34395 -3.9634 0.483967
-2.2183 -4.03507 0.483967
-2.09046 -4.10276 0.483967
-1.96056 -4.1664 0.483967
-1.83662 -4.24418 0.486057
-1.7024 -4.29978 0.486057
-1.5665 -4.35113 0.486057
-1.42906 -4.39819 0.486057
-1.2902 -4.4409 0.486057
-1.1476 -4.46961 0.485012
-1.00664 -4.50345 0.485012
-0.864685 -4.53284 0.485012
-0.72188 -4.55777 0.485012
-0.577115 -4.56833 0.483967
-0.433334 -4.5842 0.483967
-0.289128 -4.59555 0.483967
-0.144634 -4.60236 0.483967
-8.45858e-16 -4.60464 0.483967
0.144634 -4.60236 0.483967
0.289128 -4.59555 0.483967
0.433334 -4.5842 0.483967
0.577115 -4.56833 0.483967
0.731214 -4.6167 0.491284
0.875867 -4.59146 0.491284
1.01966 -4.56168 0.491284
1.16244 -4.5274 0.491284
1.30408 -4.48866 0.491284
1.4352 -4.4171 0.488148
1.70972 -4.31827 0.488148
1.84452 -4.26244 0.488148
1.96056 -4.1664 0.483967
2.2183 -4.03507 0.483967
2.34395 -3.9634 0.483967
2.47262 -3.89622 0.485012
2.71238 -3.73327 0.485012
2.82831 -3.64624 0.485012
2.94145 -3.5556 0.485012
3.14528 -3.34939 0.482921
3.24894 -3.24894 0.482921
3.34939 -3.14528 0.482921
3.44653 -3.03852 0.482921
3.54793 -2.93511 0.483967
3.63838 -2.82221 0.483967
3.72523 -2.70654 0.483967
3.8084 -2.58819 0.483967
3.88782 -2.46729 0.483967
3.97196 -2.34901 0.485012
4.04379 -2.22309 0.485012
4.11162 -2.09498 0.485012
4.1754 -1.96479 0.485012
4.23505 -1.83267 0.485012
4.29053 -1.69874 0.485012
4.34177 -1.56313 0.485012
4.38873 -1.42598 0.485012
4.43135 -1.28743 0.485012
4.46961 -1.1476 0.485012
4.46961 -1.1476 0.485012
4.50345 -1.00664 0.485012
4.53284 -0.864685 0.485012
4.55777 -0.72188 0.485012
4.57819 -0.578361 0.485012
4.5941 -0.43427 0.485012
4.60548 -0.289752 0.485012
4.6123 -0.144947 0.485012
4.61458 -1.13025e-15 0.485012
4.62298 0.145283 0.567911
4.61614 0.290423 0.567911
4.60474 0.435276 0.567911
4.58879 0.579699 0.567911
4.56832 0.723551 0.567911
4.54334 0.866688 0.567911
4.51387 1.00897 0.567911
4.47995 1.15026 0.567911
4.44161 1.29041 0.567911
4.31447 1.5533 0.563036
4.26355 1.68806 0.563036
4.20842 1.82115 0.563036
4.06808 2.07279 0.560599
4.00096 2.19955 0.560599
3.85496 2.44643 0.560599
3.78442 2.57189 0.561818
3.70177 2.68949 0.561818
3.52559 2.91662 0.561818
3.43224 3.02592 0.561818
3.27757 3.27757 0.56913
3.17301 3.37891 0.56913
3.06531 3.47691 0.56913
2.95458 3.57148 0.56913
2.82877 3.64683 0.566692
2.71283 3.73389 0.566692
2.59421 3.81726 0.566692
2.47302 3.89686 0.566692
2.3494 3.97262 0.566692
2.24258 4.07924 0.571567
2.11334 4.14767 0.571567
1.98202 4.21201 0.571567
1.84874 4.27219 0.571567
1.6771 4.23586 0.55938
1.54322 4.28645 0.55938
1.40782 4.33281 0.55938
1.27102 4.37489 0.55938
1.13298 4.41266 0.55938
1.00681 4.50419 0.566692
0.864829 4.53359 0.566692
0.721998 4.55852 0.566692
0.578455 4.57895 0.566692
0.434342 4.59486 0.566692
0.289799 4.60623 0.566692
0.144972 4.61306 0.566692
2.82608e-16 4.61534 0.566692
-0.144972 4.61306 0.566692
-0.289176 4.59633 0.565474
-0.433408 4.58498 0.565474
-0.577211 4.5691 0.565474
-0.720445 4.54871 0.565474
-0.862969 4.52384 0.565474
-1.00464 4.4945 0.565474
-1.14532 4.46073 0.565474
-1.28487 4.42255 0.565474
-1.42315 4.38001 0.565474
-1.56003 4.33315 0.565474
-1.69537 4.28201 0.565474
-1.82903 4.22664 0.565474
-1.96089 4.1671 0.565474
-2.09081 4.10345 0.565474
-2.21389 4.02706 0.564255
-2.33929 3.95553 0.564255
-2.46239 3.8801 0.564255
-2.58305 3.80084 0.564255
-2.71866 3.74192 0.567911
-2.83486 3.65468 0.567911
-2.94826 3.56383 0.567911
-3.05874 3.46946 0.567911
-3.16621 3.37167 0.567911
-3.2495 3.2495 0.564255
-3.34997 3.14583 0.564255
-3.44713 3.03905 0.564255
-3.54088 2.92928 0.564255
-3.63899 2.82269 0.565474
-3.72586 2.70699 0.565474
-3.80905 2.58863 0.565474
-3.88848 2.4677 0.565474
-3.96407 2.34435 0.565474
-4.04445 2.22346 0.566692
-4.1123 2.09532 0.566692
-4.17608 1.96512 0.566692
-4.23575 1.83297 0.566692
-4.29123 1.69902 0.566692
-4.35182 1.56675 0.567911
-4.39889 1.42929 0.567911
-4.44161 1.29041 0.567911
-4.47995 1.15026 0.567911
-4.44607 0.993815 0.55938
-4.47509 0.85367 0.55938
-4.4997 0.712682 0.55938
-4.51986 0.570991 0.55938
-4.59486 0.434341 0.566692
-4.61306 0.144972 0.566692
-4.61534 5.65216e-16 0.566692
-4.61306 -0.144972 0.566692
-4.56521 -0.431539 0.563036
-4.5494 -0.574723 0.563036
-4.52911 -0.71734 0.563036
-4.4945 -1.00464 0.565474
-4.46073 -1.14532 0.565474
-4.42255 -1.28487 0.565474
-4.32381 -1.55667 0.564255
-4.27278 -1.69171 0.564255
-4.21753 -1.82509 0.564255
-4.09461 -2.08631 0.564255
-4.03576 -2.21868 0.565474
-3.96407 -2.34435 0.565474
-3.80905 -2.58863 0.565474
-3.71783 -2.70116 0.564255
-3.54088 -2.92928 0.564255
-3.44713 -3.03905 0.564255
-3.36444 -3.15942 0.566692
-3.15942 -3.36444 0.566692
-3.15942 -3.36444 0.566692
-2.94193 -3.55618 0.566692
-2.82877 -3.64683 0.566692
-2.68366 -3.69374 0.560599
-2.56631 -3.77621 0.560599
-2.44643 -3.85496 0.560599
-2.44643 -3.85496 0.560599
-2.32414 -3.9299 0.560599
-2.21868 -4.03576 0.565474
-2.09081 -4.10345 0.565474
-1.96089 -4.1671 0.565474
-1.82903 -4.22664 0.565474
-1.69537 -4.28201 0.565474
-1.56339 -4.34248 0.566692
-1.42622 -4.38945 0.566692
-1.28764 -4.43208 0.566692
-1.14779 -4.47034 0.566692
-1.00897 -4.51387 0.567911
-0.866687 -4.54334 0.567911
-0.723551 -4.56832 0.567911
-0.5797 -4.58879 0.567911
-0.435275 -4.60474 0.567911
-0.290423 -4.61614 0.567911
-0.145282 -4.62298 0.567911
-8.49647e-16 -4.62527 0.567911
0.145282 -4.62298 0.567911
0.2898 -4.60623 0.566692
0.434341 -4.59486 0.566692
0.578456 -4.57895 0.566692
0.721998 -4.55852 0.566692
0.864827 -4.53359 0.566692
1.00897 -4.51387 0.567911
1.15026 -4.47995 0.567911
1.29041 -4.44161 0.567911
1.42929 -4.39889 0.567911
1.5533 -4.31447 0.563036
1.82115 -4.20842 0.563036
1.95244 -4.14914 0.563036
2.0818 -4.08577 0.563036
2.33424 -3.94699 0.563036
2.45707 -3.87172 0.563036
2.69533 -3.7098 0.563036
2.80444 -3.61546 0.561818
2.91662 -3.52559 0.561818
3.13224 -3.3355 0.561818
3.2495 -3.2495 0.564255
3.34997 -3.14583 0.564255
3.44713 -3.03905 0.564255
3.54088 -2.92928 0.564255
3.63115 -2.81661 0.564255
3.71783 -2.70116 0.564255
3.80084 -2.58305 0.564255
3.8801 -2.46239 0.564255
3.95553 -2.33929 0.564255
4.02706 -2.21389 0.564255
4.07692 -2.0773 0.561818
4.14016 -1.94821 0.561818
4.19931 -1.8172 0.561818
4.25432 -1.68441 0.561818
4.30513 -1.54994 0.561818
4.38945 -1.42622 0.566692
4.43208 -1.28764 0.566692
4.47034 -1.14779 0.566692
4.50419 -1.00681 0.566692
4.51409 -0.861108 0.564255
4.53891 -0.718893 0.564255
4.55925 -0.575968 0.564255
4.57509 -0.432473 0.564255
4.58642 -0.288554 0.564255
4.60314 -0.144659 0.565474
4.60541 -1.128e-15 0.565474
4.59258 0.144328 0.645763
4.58578 0.288513 0.645763
4.55473 0.430549 0.64298
4.53896 0.573404 0.64298
4.51871 0.715694 0.64298
4.494 0.857277 0.64298
4.46486 0.998014 0.64298
4.4313 1.13777 0.64298
4.39338 1.2764 0.64298
4.35112 1.41376 0.64298
4.30457 1.54974 0.64298
4.25376 1.68418 0.64298
4.19876 1.81697 0.64298
4.07639 2.07702 0.64298
3.99178 2.1945 0.640196
3.84611 2.44082 0.640196
3.76754 2.56042 0.640196
3.59934 2.79193 0.640196
3.50987 2.90361 0.640196
3.41693 3.01243 0.640196
3.22104 3.22104 0.640196
3.13861 3.34228 0.644371
3.03208 3.43922 0.644371
2.92255 3.53276 0.644371
2.81014 3.62281 0.644371
2.69496 3.7093 0.644371
2.58269 3.80031 0.645763
2.46204 3.87955 0.645763
2.33897 3.95498 0.645763
2.21358 4.02649 0.645763
2.08602 4.09404 0.645763
1.95639 4.15754 0.645763
1.82483 4.21694 0.645763
1.69147 4.27218 0.645763
1.55645 4.3232 0.645763
1.40764 4.33228 0.640196
1.27087 4.37436 0.640196
1.13284 4.41212 0.640196
0.993693 4.44553 0.640196
0.857277 4.494 0.64298
0.715694 4.51871 0.64298
0.573404 4.53896 0.64298
0.430549 4.55473 0.64298
0.287269 4.56601 0.64298
0.145261 4.62227 0.649938
2.83172e-16 4.62455 0.649938
-0.145261 4.62227 0.649938
-0.290378 4.61543 0.649938
-0.428685 4.53502 0.640196
-0.570922 4.51931 0.640196
-0.712595 4.49915 0.640196
-0.853566 4.47455 0.640196
-0.993693 4.44553 0.640196
-1.14515 4.46008 0.647155
-1.28468 4.42191 0.647155
-1.42294 4.37937 0.647155
-1.5598 4.33252 0.647155
-1.68783 4.26297 0.644371
-1.95217 4.14858 0.644371
-2.08152 4.08521 0.644371
-2.20881 4.01781 0.644371
-2.46735 3.88792 0.647155
-2.58825 3.8085 0.647155
-2.7066 3.72532 0.647155
-2.91624 3.52513 0.64298
-3.02553 3.43179 0.64298
-3.23504 3.23504 0.64298
-3.32784 3.12505 0.641588
-3.42436 3.01898 0.641588
-3.5175 2.90993 0.641588
-3.60716 2.798 0.641588
-3.69327 2.68332 0.641588
-3.78393 2.57155 0.64298
-3.86283 2.45143 0.64298
-3.93793 2.32888 0.64298
-4.00914 2.20404 0.64298
-4.07639 2.07702 0.64298
-4.11274 1.93531 0.638805
-4.1715 1.80517 0.638805
-4.22614 1.67325 0.638805
-4.27661 1.53968 0.638805
-4.36996 1.41988 0.645763
-4.4124 1.28192 0.645763
-4.45049 1.14269 0.645763
-4.48418 1.00233 0.645763
-4.51346 0.860988 0.645763
-4.48937 0.711046 0.638805
-4.50949 0.569681 0.638805
-4.52516 0.427753 0.638805
-4.53636 0.285404 0.638805
-4.54309 0.142773 0.638805
-4.59484 5.62706e-16 0.645763
-4.59258 -0.144328 0.645763
-4.58578 -0.288513 0.645763
-4.57445 -0.432413 0.645763
-4.53896 -0.573404 0.64298
-4.51871 -0.715694 0.64298
-4.494 -0.857277 0.64298
-4.46486 -0.998014 0.64298
-4.43131 -1.13777 0.64298
-4.4124 -1.28192 0.645763
-4.36996 -1.41988 0.645763
-4.3232 -1.55645 0.645763
-4.27218 -1.69148 0.645763
-4.20785 -1.8209 0.644371
-4.14858 -1.95217 0.644371
-4.01781 -2.20881 0.644371
-3.94645 -2.33393 0.644371
-3.86283 -2.45143 0.64298
-3.70128 -2.68914 0.64298
-3.61499 -2.80407 0.64298
-3.43922 -3.03208 0.644371
-3.34228 -3.13861 0.644371
-3.24204 -3.24204 0.644371
-3.13861 -3.34228 0.644371
-3.02553 -3.43179 0.64298
-2.91624 -3.52513 0.64298
-2.80407 -3.61499 0.64298
-2.68914 -3.70128 0.64298
-2.57155 -3.78393 0.64298
-2.57712 -3.79212 0.644371
-2.45673 -3.87119 0.644371
-2.33393 -3.94645 0.644371
-2.20881 -4.01781 0.644371
-2.08152 -4.08521 0.644371
-1.95217 -4.14858 0.644371
-1.8209 -4.20785 0.644371
-1.68783 -4.26297 0.644371
-1.55309 -4.31388 0.644371
-1.41682 -4.36054 0.644371
-1.28468 -4.42191 0.647155
-1.14515 -4.46008 0.647155
-1.00449 -4.49385 0.647155
-0.862843 -4.52318 0.647155
-0.718792 -4.53827 0.645763
-0.575888 -4.55861 0.645763
-0.432413 -4.57445 0.645763
-0.288513 -4.58578 0.645763
-0.144327 -4.59258 0.645763
-8.40421e-16 -4.57504 0.64298
0.143704 -4.57278 0.64298
0.28727 -4.56601 0.64298
0.430549 -4.55473 0.64298
0.572164 -4.52914 0.641588
0.714145 -4.50893 0.641588
0.85542 -4.48427 0.641588
0.995854 -4.45519 0.641588
1.27916 -4.40289 0.644371
1.41682 -4.36054 0.644371
1.55309 -4.31388 0.644371
1.8209 -4.20785 0.644371
1.94796 -4.13962 0.64298
2.07702 -4.07639 0.64298
2.32888 -3.93793 0.64298
2.45143 -3.86283 0.64298
2.58269 -3.80031 0.645763
2.70078 -3.71731 0.645763
2.81621 -3.63064 0.645763
2.92886 -3.54039 0.645763
3.03208 -3.43922 0.644371
3.13861 -3.34228 0.644371
3.13861 -3.34228 0.644371
3.24204 -3.24204 0.644371
3.43922 -3.03208 0.644371
3.52513 -2.91624 0.64298
3.52513 -2.91624 0.64298
3.61499 -2.80407 0.64298
3.70128 -2.68914 0.64298
3.86283 -2.45143 0.64298
3.91236 -2.31376 0.638805
3.9831 -2.18973 0.638805
4.04992 -2.06354 0.638805
4.11274 -1.93531 0.638805
4.1715 -1.80517 0.638805
4.22614 -1.67325 0.638805
4.27661 -1.53967 0.638805
4.32287 -1.40458 0.638805
4.36485 -1.26811 0.638805
4.43131 -1.13777 0.64298
4.43131 -1.13777 0.64298
4.46486 -0.998014 0.64298
4.494 -0.857276 0.64298
4.51871 -0.715694 0.64298
4.56844 -0.577129 0.647155
4.58431 -0.433344 0.647155
4.59566 -0.289135 0.647155
4.60247 -0.144638 0.647155
4.55523 -1.11571e-15 0.640196
4.54112 0.142711 0.719599
4.5344 0.28528 0.719599
0 0 0
0 0 0
0 0 0
0 0 0
4.38194 1.27307 0.722727
4.33979 1.41008 0.722727
4.24268 1.6798 0.722727
4.18782 1.81223 0.722727
4.12883 1.94288 0.722727
3.99869 2.1983 0.722727
3.92767 2.32282 0.722727
3.78224 2.57041 0.724292
3.69963 2.68794 0.724292
3.61338 2.80282 0.724292
3.43026 3.02418 0.724292
3.29757 3.09663 0.71647
3.19868 3.19868 0.71647
2.99152 3.39321 0.71647
2.90235 3.50833 0.721163
2.79071 3.59777 0.721163
2.67633 3.68365 0.721163
2.5593 3.7659 0.721163
2.43975 3.84443 0.721163
2.3379 3.95317 0.72742
2.21257 4.02466 0.72742
2.08507 4.09217 0.72742
1.9555 4.15565 0.72742
1.82008 4.20595 0.725856
1.68707 4.26105 0.725856
1.55239 4.31194 0.725856
1.41619 4.35857 0.725856
1.27858 4.4009 0.725856
1.12989 4.40063 0.719599
0.991105 4.43395 0.719599
0.851342 4.46289 0.719599
0.710739 4.48743 0.719599
0.565721 4.47814 0.714906
0.42478 4.4937 0.714906
0.28342 4.50483 0.714906
0.14178 4.51151 0.714906
2.76387e-16 4.51374 0.714906
-0.143331 4.56087 0.722727
-0.286521 4.55412 0.722727
-0.429428 4.54287 0.722727
-0.57191 4.52714 0.722727
-0.713829 4.50694 0.722727
-0.855044 4.48229 0.722727
-0.995414 4.45323 0.722727
-1.1348 4.41976 0.722727
-1.27307 4.38194 0.722727
-1.40703 4.33039 0.721163
-1.54236 4.28406 0.721163
-1.67616 4.2335 0.721163
-1.80831 4.17876 0.721163
-2.06713 4.05697 0.721163
-2.19354 3.99004 0.721163
-2.31779 3.91917 0.721163
-2.57596 3.79041 0.725856
-2.69375 3.70762 0.725856
-2.92123 3.53116 0.725856
-3.03071 3.43766 0.725856
-3.13719 3.34077 0.725856
-3.34077 3.13719 0.725856
-3.43766 3.03071 0.725856
-3.59777 2.79072 0.721163
-3.68365 2.67633 0.721163
-3.7659 2.5593 0.721163
-3.84443 2.43975 0.721163
-3.91917 2.31779 0.721163
-3.92767 2.32282 0.722727
-3.99869 2.1983 0.722727
-4.06577 2.07161 0.722727
-4.12883 1.94288 0.722727
-4.18782 1.81223 0.722727
-4.25186 1.68343 0.724292
-4.30265 1.54905 0.724292
-4.34918 1.41313 0.724292
-4.39142 1.27583 0.724292
-4.44846 1.14217 0.72742
-4.48214 1.00188 0.72742
-4.5114 0.860596 0.72742
-4.53621 0.718465 0.72742
-4.55654 0.575624 0.72742
-4.51337 0.426639 0.718034
-4.52454 0.284661 0.718034
-4.53125 0.142401 0.718034
-4.53349 5.55192e-16 0.718034
-4.53125 -0.142401 0.718034
-4.57383 -0.287762 0.725856
-4.56253 -0.431286 0.725856
-4.54674 -0.574386 0.725856
-4.52645 -0.716919 0.725856
-4.492 -0.856894 0.724292
-4.46286 -0.997569 0.724292
-4.42933 -1.13726 0.724292
-4.39142 -1.27583 0.724292
-4.34918 -1.41313 0.724292
-4.29335 -1.5457 0.722727
-4.24268 -1.6798 0.722727
-4.18782 -1.81223 0.722727
-4.12883 -1.94288 0.722727
-4.02177 -2.04919 0.714906
-3.95542 -2.17451 0.714906
-3.81107 -2.41858 0.714906
-3.75773 -2.55375 0.719599
-3.67566 -2.67052 0.719599
-3.50072 -2.89605 0.719599
-3.40803 -3.00458 0.719599
-3.24058 -3.24058 0.725856
-3.13719 -3.34077 0.725856
-3.03071 -3.43766 0.725856
-2.79072 -3.59777 0.721163
-2.67633 -3.68365 0.721163
-2.5593 -3.7659 0.721163
-2.43975 -3.84443 0.721163
-2.31779 -3.91917 0.721163
-2.19354 -3.99004 0.721163
-2.19354 -3.99004 0.721163
-2.06713 -4.05697 0.721163
-1.93868 -4.1199 0.721163
-1.80831 -4.17876 0.721163
-1.6798 -4.24268 0.722727
-1.5457 -4.29335 0.722727
-1.41008 -4.33979 0.722727
-1.27307 -4.38194 0.722727
-1.1348 -4.41976 0.722727
-1.00188 -4.48214 0.72742
-0.860595 -4.5114 0.72742
-0.718465 -4.53621 0.72742
-0.575625 -4.55654 0.72742
-0.430357 -4.5527 0.724292
-0.287141 -4.56397 0.724292
-0.14364 -4.57074 0.724292
-8.40046e-16 -4.573 0.724292
0.14364 -4.57074 0.724292
0.285901 -4.54426 0.721163
0.428498 -4.53304 0.721163
0.570674 -4.51734 0.721163
0.712284 -4.49719 0.721163
0.853192 -4.47259 0.721163
0.988951 -4.42431 0.718034
1.12743 -4.39106 0.718034
1.2648 -4.35348 0.718034
1.40093 -4.3116 0.718034
1.54905 -4.30265 0.724292
1.68343 -4.25186 0.724292
1.81616 -4.19689 0.724292
1.94709 -4.13777 0.724292
2.07161 -4.06577 0.722727
2.32282 -3.92767 0.722727
2.44504 -3.85277 0.722727
2.56485 -3.77407 0.722727
2.68213 -3.69164 0.722727
2.79677 -3.60557 0.722727
2.90864 -3.51594 0.722727
3.01765 -3.42285 0.722727
3.12367 -3.32637 0.722727
3.22661 -3.22661 0.722727
3.32637 -3.12367 0.722727
3.42285 -3.01765 0.722727
3.51594 -2.90864 0.722727
3.61338 -2.80282 0.724292
3.69963 -2.68794 0.724292
3.78224 -2.57041 0.724292
3.86111 -2.45033 0.724292
3.93617 -2.32785 0.724292
3.99869 -2.1983 0.722727
4.06577 -2.07161 0.722727
4.12883 -1.94288 0.722727
4.18782 -1.81223 0.722727
4.24268 -1.6798 0.722727
4.33052 -1.55908 0.728985
4.37736 -1.42229 0.728985
4.41987 -1.28409 0.728985
4.45803 -1.14463 0.728985
4.45323 -0.995414 0.722727
4.4823 -0.855042 0.722727
4.50694 -0.713829 0.722727
4.52714 -0.571912 0.722727
4.54287 -0.429427 0.722727
4.59355 -0.289002 0.728985
4.60036 -0.144571 0.728985
4.60263 -1.12732e-15 0.728985
4.58694 0.14415 0.8092
4.52118 0.284448 0.798782
4.51001 0.426322 0.798782
4.49439 0.567774 0.798782
4.44987 0.848859 0.798782
4.47868 1.0011 0.8092
4.40698 1.28035 0.8092
4.36459 1.41814 0.8092
4.212 1.66765 0.798782
4.15753 1.79913 0.798782
4.09897 1.92883 0.798782
3.9784 2.18714 0.800518
3.90774 2.31103 0.800518
3.83322 2.43263 0.800518
3.67291 2.66852 0.800518
3.59506 2.78861 0.802255
3.41286 3.00884 0.802255
3.31667 3.11456 0.802255
3.08759 3.28795 0.795309
2.98279 3.38332 0.795309
2.87505 3.47534 0.795309
2.70326 3.72071 0.810937
2.58505 3.80379 0.810937
2.4643 3.88311 0.810937
2.34111 3.9586 0.810937
2.21561 4.03018 0.810937
2.07451 4.07146 0.805728
2.07451 4.07146 0.805728
1.9456 4.13461 0.805728
1.81477 4.19369 0.805728
1.68215 4.24862 0.805728
1.54119 4.28083 0.802255
1.40597 4.32713 0.802255
1.26936 4.36916 0.802255
1.13149 4.40687 0.802255
0.990362 4.43063 0.800518
0.850705 4.45955 0.800518
0.710207 4.48407 0.800518
0.569008 4.50416 0.800518
0.427248 4.51982 0.800518
0.285067 4.53101 0.800518
0.142604 4.53772 0.800518
2.77993e-16 4.53996 0.800518
-0.142604 4.53772 0.800518
-0.286922 4.56049 0.805728
-0.430029 4.54923 0.805728
-0.572711 4.53348 0.805728
-0.714828 4.51325 0.805728
-0.856241 4.48857 0.805728
-0.983917 4.40179 0.795309
-1.1217 4.36872 0.795309
-1.25837 4.33133 0.795309
-1.3938 4.28966 0.795309
-1.52785 4.24377 0.795309
-1.67852 4.23946 0.803991
-1.81086 4.18465 0.803991
-1.94141 4.1257 0.803991
-2.19663 3.99566 0.803991
-2.32607 3.93317 0.805728
-2.56844 3.77935 0.805728
-2.68589 3.69681 0.805728
-2.78861 3.59506 0.802255
-2.90016 3.50569 0.802255
-3.00884 3.41286 0.802255
-3.11456 3.31667 0.802255
-3.2172 3.2172 0.802255
-3.29513 3.09434 0.797045
-3.3907 2.98931 0.797045
-3.48293 2.88133 0.797045
-3.57171 2.7705 0.797045
-3.65697 2.65695 0.797045
-3.74677 2.5463 0.798782
-3.8249 2.42736 0.798782
-3.89926 2.30602 0.798782
-3.96977 2.1824 0.798782
-4.05391 2.06557 0.802255
-4.11679 1.93722 0.802255
-4.17561 1.80695 0.802255
-4.23031 1.6749 0.802255
-4.28083 1.54119 0.802255
-4.29903 1.39684 0.797045
-4.34078 1.26111 0.797045
-4.37826 1.12414 0.797045
-4.41141 0.986066 0.797045
-4.4402 0.847014 0.797045
-4.48407 0.710207 0.800518
-4.50416 0.569008 0.800518
-4.51982 0.427248 0.800518
-4.53101 0.285067 0.800518
-4.5771 0.143841 0.807464
-4.57936 5.60809e-16 0.807464
-4.5771 -0.143841 0.807464
-4.57032 -0.287541 0.807464
-4.55903 -0.430955 0.807464
-4.51394 -0.570242 0.802255
-4.4938 -0.711747 0.802255
-4.46922 -0.85255 0.802255
-4.43063 -0.990363 0.800518
-4.3597 -1.26661 0.800518
-4.31776 -1.40293 0.800518
-4.22115 -1.67127 0.800518
-4.17561 -1.80695 0.802255
-4.11679 -1.93722 0.802255
-3.98703 -2.19189 0.802255
-3.91621 -2.31604 0.802255
-3.91621 -2.31604 0.802255
-3.84153 -2.43791 0.802255
-3.76306 -2.55737 0.802255
-3.68088 -2.67431 0.802255
-3.58728 -2.78258 0.800518
-3.4981 -2.89388 0.800518
-3.40548 -3.00233 0.800518
-3.30949 -3.10782 0.800518
-3.21024 -3.21024 0.800518
-3.10782 -3.30949 0.800518
-3.00233 -3.40548 0.800518
-2.89388 -3.4981 0.800518
-2.66852 -3.67291 0.800518
-2.5463 -3.74677 0.798782
-2.42736 -3.8249 0.798782
-2.30602 -3.89926 0.798782
-2.1824 -3.96977 0.798782
-2.05663 -4.03636 0.798782
-1.95818 -4.16135 0.810937
-1.8265 -4.2208 0.810937
-1.69302 -4.27609 0.810937
-1.55787 -4.32716 0.810937
-1.40293 -4.31776 0.800518
-1.26661 -4.3597 0.800518
-1.12904 -4.39733 0.800518
-0.990363 -4.43063 0.800518
-0.850703 -4.45955 0.800518
-0.713288 -4.50352 0.803991
-0.571478 -4.52371 0.803991
-0.429101 -4.53942 0.803991
-0.286304 -4.55066 0.803991
-0.142603 -4.53772 0.800518
-8.33978e-16 -4.53996 0.800518
0.142603 -4.53772 0.800518
0.285067 -4.53101 0.800518
0.565306 -4.47485 0.795309
0.705585 -4.45489 0.795309
0.983918 -4.40179 0.795309
1.12659 -4.38779 0.798782
1.26386 -4.35024 0.798782
1.53452 -4.2623 0.798782
1.66765 -4.21199 0.798782
1.79913 -4.15753 0.798782
1.80695 -4.17561 0.802255
1.93722 -4.11679 0.802255
2.19189 -3.98703 0.802255
2.31604 -3.91621 0.802255
2.44846 -3.85816 0.805728
2.56845 -3.77935 0.805728
2.68589 -3.69681 0.805728
2.80068 -3.61062 0.805728
2.86877 -3.46775 0.793572
2.97628 -3.37593 0.793572
3.08085 -3.28077 0.793572
3.18238 -3.18238 0.793572
3.28077 -3.08085 0.793572
3.39809 -2.99582 0.798782
3.49051 -2.8876 0.798782
3.57949 -2.77654 0.798782
3.66494 -2.66274 0.798782
3.74677 -2.5463 0.798782
3.84985 -2.44319 0.803991
3.92469 -2.32106 0.803991
3.99566 -2.19663 0.803991
4.06269 -2.07004 0.803991
4.11679 -1.93722 0.802255
4.17561 -1.80695 0.802255
4.23031 -1.6749 0.802255
4.28083 -1.54119 0.802255
4.32713 -1.40597 0.802255
4.33649 -1.40901 0.803991
4.37861 -1.27211 0.803991
4.41641 -1.13394 0.803991
4.44985 -0.994659 0.803991
4.4789 -0.854394 0.803991
4.46462 -0.707126 0.797045
4.50021 -0.425394 0.797045
4.51135 -0.28383 0.797045
4.55741 -0.143221 0.803991
4.54269 0.14276 0.883446
4.53597 0.285379 0.883446
4.52476 0.427716 0.883446
4.47928 0.709449 0.881538
4.45479 0.849796 0.881538
4.39264 1.12784 0.881538
4.35504 1.26526 0.881538
4.31315 1.40143 0.881538
4.21665 1.66949 0.881538
4.16213 1.80111 0.881538
4.1035 1.93096 0.881538
3.97415 2.18481 0.881538
3.90357 2.30856 0.881538
3.81255 2.41952 0.877721
3.6531 2.65414 0.877721
3.56793 2.76757 0.877721
3.50193 2.89705 0.883446
3.31311 3.11122 0.883446
3.21375 3.21375 0.883446
3.11122 3.31311 0.883446
2.95369 3.3503 0.868181
2.84699 3.44142 0.868181
2.73749 3.52915 0.868181
2.62529 3.6134 0.868181
2.51049 3.69408 0.868181
2.4353 3.83741 0.883446
2.31356 3.91202 0.883446
2.18954 3.98276 0.883446
2.06336 4.04957 0.883446
1.93932 4.12126 0.885354
1.80891 4.18014 0.885354
1.67672 4.2349 0.885354
1.54287 4.28548 0.885354
1.4075 4.33182 0.885354
1.26252 4.34562 0.879629
1.1254 4.38313 0.879629
0.987164 4.41632 0.879629
0.847957 4.44515 0.879629
0.707913 4.46959 0.879629
0.56717 4.48962 0.879629
0.425869 4.50522 0.879629
0.284146 4.51637 0.879629
0.142143 4.52307 0.879629
2.76494e-16 4.51548 0.877721
-0.141835 4.51326 0.877721
-0.28353 4.50657 0.877721
-0.424945 4.49545 0.877721
-0.56594 4.47988 0.877721
-0.706377 4.45989 0.877721
-0.846118 4.4355 0.877721
-0.985022 4.40674 0.877721
-1.12296 4.37362 0.877721
-1.25978 4.33619 0.877721
-1.3984 4.30382 0.879629
-1.53289 4.25777 0.879629
-1.66587 4.20752 0.879629
-1.80111 4.16213 0.881538
-2.0589 4.04082 0.881538
-2.18481 3.97415 0.881538
-2.43004 3.82913 0.881538
-2.53256 3.72655 0.875813
-2.64837 3.64516 0.875813
-2.87202 3.47168 0.875813
-3.02509 3.4313 0.88917
-3.13138 3.33458 0.88917
-3.33458 3.13138 0.88917
-3.4313 3.02509 0.88917
-3.50193 2.89705 0.883446
-3.5912 2.78562 0.883446
-3.67693 2.67145 0.883446
-3.75903 2.55463 0.883446
-3.83741 2.4353 0.883446
-3.90357 2.30856 0.881538
-3.97415 2.18481 0.881538
-4.04082 2.0589 0.881538
-4.1035 1.93096 0.881538
-4.14411 1.79331 0.877721
-4.19839 1.66226 0.877721
-4.19839 1.66226 0.877721
-4.24853 1.52957 0.877721
-4.29448 1.39536 0.877721
-4.33619 1.25978 0.877721
-4.37362 1.12295 0.877721
-4.40674 0.985023 0.877721
-4.4355 0.846118 0.877721
-4.45989 0.706377 0.877721
-4.48962 0.56717 0.879629
-4.51637 0.284147 0.879629
-4.51637 0.284147 0.879629
-4.52307 0.142143 0.879629
-4.5253 5.5419e-16 0.879629
-4.52307 -0.142143 0.879629
-4.51637 -0.284147 0.879629
-4.50522 -0.425868 0.879629
-4.48962 -0.56717 0.879629
-4.49867 -0.71252 0.885354
-4.47407 -0.853475 0.885354
-4.44506 -0.993588 0.885354
-4.41165 -1.13272 0.885354
-4.3739 -1.27073 0.885354
-4.32249 -1.40446 0.883446
-4.27624 -1.53954 0.883446
-4.17113 -1.80501 0.883446
-4.08573 -1.9226 0.877721
-3.95695 -2.17535 0.877721
-3.88667 -2.29857 0.877721
-3.81255 -2.41952 0.877721
-3.66105 -2.65991 0.879629
-3.57569 -2.77359 0.879629
-3.4868 -2.88454 0.879629
-3.2988 -3.09778 0.879629
-3.19987 -3.19987 0.879629
-3.09778 -3.2988 0.879629
-2.99264 -3.39448 0.879629
-2.87828 -3.47924 0.877721
-2.76757 -3.56793 0.877721
-2.65414 -3.6531 0.877721
-2.53808 -3.73467 0.877721
-2.41952 -3.81255 0.877721
-2.32355 -3.92891 0.887262
-2.199 -3.99996 0.887262
-2.07227 -4.06706 0.887262
-1.9435 -4.13014 0.887262
-1.81281 -4.18915 0.887262
-1.66226 -4.19839 0.877721
-1.52957 -4.24853 0.877721
-1.39536 -4.29448 0.877721
-1.25978 -4.33619 0.877721
-1.12784 -4.39264 0.881538
-0.989306 -4.4259 0.881538
-0.849795 -4.45479 0.881538
-0.709449 -4.47928 0.881538
-0.568402 -4.49936 0.881538
-0.425868 -4.50522 0.879629
-0.284147 -4.51637 0.879629
-0.142142 -4.52307 0.879629
-8.31284e-16 -4.5253 0.879629
0.142142 -4.52307 0.879629
0.282297 -4.48698 0.873905
0.423097 -4.4759 0.873905
0.563481 -4.4604 0.873905
0.703306 -4.4405 0.873905
0.847956 -4.44515 0.879629
0.987164 -4.41632 0.879629
1.1254 -4.38313 0.879629
1.26252 -4.34562 0.879629
1.3984 -4.30382 0.879629
1.52624 -4.2393 0.875813
1.65865 -4.18926 0.875813
1.78942 -4.1351 0.875813
1.91842 -4.07685 0.875813
2.05444 -4.03207 0.879629
2.30357 -3.89512 0.879629
2.42478 -3.82084 0.879629
2.64837 -3.64516 0.875813
2.76156 -3.56018 0.875813
2.87202 -3.47168 0.875813
3.09778 -3.2988 0.879629
3.19987 -3.19987 0.879629
3.2988 -3.09778 0.879629
3.4868 -2.88454 0.879629
3.55242 -2.75554 0.873905
3.63722 -2.6426 0.873905
3.63722 -2.6426 0.873905
3.71843 -2.52704 0.873905
3.79597 -2.409 0.873905
3.87822 -2.29357 0.875813
3.94835 -2.17062 0.875813
4.01458 -2.04553 0.875813
4.07685 -1.91842 0.875813
4.1351 -1.78942 0.875813
4.20752 -1.66588 0.879629
4.25777 -1.53289 0.879629
4.30382 -1.3984 0.879629
4.34562 -1.26252 0.879629
4.36412 -1.12051 0.875813
4.39716 -0.982882 0.875813
4.42586 -0.844277 0.875813
4.4502 -0.704842 0.875813
4.47014 -0.564711 0.875813
4.50522 -0.425868 0.879629
4.51637 -0.284147 0.879629
4.52307 -0.142142 0.879629
4.5253 -1.10838e-15 0.879629
4.50704 0.141639 0.958473
4.48084 0.28191 0.954315
4.46977 0.422518 0.954315
4.4543 0.562708 0.954315
4.43442 0.702343 0.954315
4.42939 0.844951 0.958473
4.40066 0.983665 0.958473
4.36759 1.12141 0.958473
4.33021 1.25804 0.958473
4.28856 1.39344 0.958473
4.21507 1.51752 0.952236
4.16532 1.64917 0.952236
4.11146 1.77919 0.952236
4.01778 2.04716 0.958473
3.9515 2.17235 0.958473
3.80729 2.41618 0.958473
3.72952 2.53458 0.958473
3.67181 2.66772 0.96471
3.49706 2.89302 0.96471
3.40446 3.00143 0.96471
3.3085 3.10689 0.96471
3.18161 3.18161 0.956394
3.08011 3.27998 0.956394
2.97556 3.37511 0.956394
2.97556 3.37511 0.956394
2.86808 3.46691 0.956394
2.76376 3.56301 0.958473
2.65048 3.64807 0.958473
2.53458 3.72952 0.958473
2.41618 3.80729 0.958473
2.2954 3.88131 0.958473
2.17706 3.96007 0.960552
2.0516 4.0265 0.960552
1.92411 4.08895 0.960552
1.79473 4.14737 0.960552
1.65277 4.17442 0.954315
1.52083 4.22427 0.954315
1.38739 4.26996 0.954315
1.25259 4.31143 0.954315
1.11654 4.34865 0.954315
0.97513 4.36248 0.950156
0.83762 4.39096 0.950156
0.699283 4.4151 0.950156
0.560256 4.43489 0.950156
0.424359 4.48925 0.958473
0.283139 4.50036 0.958473
0.14164 4.50704 0.958473
2.76113e-16 4.50926 0.958473
-0.14164 4.50704 0.958473
-0.283139 4.50036 0.958473
-0.424359 4.48925 0.958473
-0.56516 4.4737 0.958473
-0.705404 4.45374 0.958473
-0.844951 4.42939 0.958473
-0.985798 4.41021 0.960552
-1.26077 4.33961 0.960552
-1.39646 4.29786 0.960552
-1.52083 4.22427 0.954315
-1.78307 4.12044 0.954315
-1.91162 4.0624 0.954315
-2.04716 4.01778 0.958473
-2.2954 3.88131 0.958473
-2.41618 3.80729 0.958473
-2.53458 3.72952 0.958473
-2.75177 3.54756 0.954315
-2.86184 3.45937 0.954315
-2.96909 3.36777 0.954315
-3.18853 3.18853 0.958473
-3.28711 3.0868 0.958473
-3.47444 2.87431 0.958473
-3.56301 2.76376 0.958473
-3.64015 2.64473 0.956394
-3.72143 2.52908 0.956394
-3.79904 2.41094 0.956394
-3.87289 2.29042 0.956394
-3.94292 2.16764 0.956394
-3.94292 2.16764 0.956394
-4.00907 2.04272 0.956394
-4.07125 1.91578 0.956394
-4.12942 1.78696 0.956394
-4.18351 1.65637 0.956394
-4.26108 1.53408 0.962631
-4.30717 1.39948 0.962631
-4.349 1.2635 0.962631
-4.38654 1.12627 0.962631
-4.41975 0.987933 0.962631
-4.40056 0.839453 0.952236
-4.42476 0.700813 0.952236
-4.44459 0.561482 0.952236
-4.46003 0.421597 0.952236
-4.48084 0.281911 0.954315
-4.48748 0.141025 0.954315
-4.4897 5.49829e-16 0.954315
-4.48748 -0.141025 0.954315
-4.48084 -0.281911 0.954315
-4.48925 -0.424358 0.958473
-4.4737 -0.56516 0.958473
-4.45374 -0.705404 0.958473
-4.42939 -0.844951 0.958473
-4.41975 -0.987933 0.962631
-4.38654 -1.12627 0.962631
-4.349 -1.2635 0.962631
-4.30717 -1.39948 0.962631
-4.26108 -1.53408 0.962631
-4.1926 -1.65997 0.958473
-4.13839 -1.79084 0.958473
-4.0801 -1.91995 0.958473
-4.00035 -2.03828 0.954315
-3.86447 -2.28544 0.954315
-3.79078 -2.4057 0.954315
-3.63224 -2.63898 0.954315
-3.55529 -2.75776 0.956394
-3.46691 -2.86808 0.956394
-3.27998 -3.08011 0.956394
-3.18161 -3.18161 0.956394
-3.08011 -3.27998 0.956394
-2.86808 -3.46691 0.956394
-2.75776 -3.55529 0.956394
-2.52908 -3.72143 0.956394
-2.41094 -3.79904 0.956394
-2.29042 -3.87289 0.956394
-2.03828 -4.00035 0.954315
-1.91162 -4.0624 0.954315
-1.78307 -4.12044 0.954315
-1.53077 -4.25188 0.960552
-1.39646 -4.29786 0.960552
-1.26077 -4.33961 0.960552
-0.985799 -4.41021 0.960552
-0.841285 -4.41017 0.954315
-0.702343 -4.43442 0.954315
-0.562709 -4.45429 0.954315
-0.422517 -4.46977 0.954315
-0.281911 -4.48084 0.954315
-0.141331 -4.49726 0.956394
-0.141331 -4.49726 0.956394
-8.26541e-16 -4.49948 0.956394
0.141331 -4.49726 0.956394
0.282525 -4.4906 0.956394
0.420676 -4.4503 0.950156
0.560257 -4.43489 0.950156
0.699283 -4.4151 0.950156
0.837619 -4.39096 0.950156
0.983665 -4.40066 0.958473
1.12141 -4.36759 0.958473
1.25804 -4.33021 0.958473
1.39344 -4.28856 0.958473
1.52746 -4.24268 0.958473
1.67077 -4.21989 0.96471
1.8025 -4.16533 0.96471
1.93244 -4.10665 0.96471
2.06048 -4.04393 0.96471
2.18649 -3.97721 0.96471
2.30038 -3.88973 0.960552
2.42142 -3.81555 0.960552
2.54008 -3.73761 0.960552
2.65623 -3.65598 0.960552
2.75177 -3.54756 0.954315
2.86184 -3.45937 0.954315
2.96909 -3.36777 0.954315
3.07341 -3.27285 0.954315
3.1747 -3.1747 0.954315
3.27998 -3.08011 0.956394
3.37511 -2.97556 0.956394
3.55529 -2.75776 0.956394
3.65598 -2.65623 0.960552
3.73761 -2.54008 0.960552
3.88973 -2.30038 0.960552
3.96007 -2.17706 0.960552
3.98292 -2.0294 0.950156
4.10249 -1.7753 0.950156
4.15623 -1.64557 0.950156
4.26996 -1.38739 0.954315
4.31143 -1.25259 0.954315
4.34865 -1.11654 0.954315
4.41017 -0.841285 0.954315
4.43442 -0.702343 0.954315
4.45429 -0.562709 0.954315
4.48084 -0.281911 0.954315
4.48748 -0.141024 0.954315
4.47015 0.14048 1.03253
4.46353 0.280822 1.03253
4.44281 0.419969 1.03028
4.40767 0.698107 1.03028
4.38357 0.836211 1.03028
4.36465 0.975615 1.03253
4.29478 1.24775 1.03253
4.25347 1.38203 1.03253
4.20796 1.51496 1.03253
4.11347 1.78006 1.03477
4.05553 1.90839 1.03477
3.99358 2.03483 1.03477
3.85793 2.28158 1.03477
3.78436 2.40163 1.03477
3.6261 2.63451 1.03477
3.54156 2.74711 1.03477
3.46103 2.86321 1.03702
3.27441 3.07488 1.03702
3.17621 3.17621 1.03702
3.03486 3.2318 1.02353
2.82595 3.41598 1.02353
2.71725 3.50306 1.02353
2.60588 3.58668 1.02353
2.51384 3.699 1.03253
2.39641 3.77614 1.03253
2.27662 3.84955 1.03253
2.15458 3.91916 1.03253
2.03041 3.9849 1.03253
1.90009 4.03789 1.03028
1.77232 4.09559 1.03028
1.6428 4.14923 1.03028
1.51166 4.19879 1.03028
1.38203 4.25347 1.03253
1.24775 4.29478 1.03253
1.11223 4.33185 1.03253
0.975615 4.36465 1.03253
0.838037 4.39314 1.03253
0.70268 4.43654 1.03702
0.562977 4.45643 1.03702
0.42272 4.47191 1.03702
0.282045 4.48298 1.03702
0.141093 4.48963 1.03702
2.7624e-16 4.51133 1.04152
-0.141705 4.50911 1.04152
-0.283269 4.50243 1.04152
-0.424554 4.49131 1.04152
-0.558093 4.41776 1.02803
-0.696583 4.39805 1.02803
-0.834385 4.374 1.02803
-0.971364 4.34563 1.02803
-1.10738 4.31298 1.02803
-1.24775 4.29478 1.03253
-1.38203 4.25347 1.03253
-1.51496 4.20796 1.03253
-1.64638 4.15829 1.03253
-1.77232 4.09559 1.03028
-1.90009 4.03789 1.03028
-2.02598 3.97622 1.03028
-2.27166 3.84116 1.03028
-2.40685 3.79259 1.03702
-2.64024 3.63398 1.03702
-2.75308 3.54925 1.03702
-2.857 3.45352 1.03477
-3.06821 3.26731 1.03477
-3.16932 3.16932 1.03477
-3.26731 3.06821 1.03477
-3.37669 2.97695 1.03927
-3.46853 2.86942 1.03927
-3.55695 2.75906 1.03927
-3.64186 2.64597 1.03927
-3.64186 2.64597 1.03927
-3.79259 2.40685 1.03702
-3.86632 2.28654 1.03702
-3.93623 2.16396 1.03702
-4.00226 2.03926 1.03702
-4.06434 1.91253 1.03702
-4.06434 1.91253 1.03702
-4.12241 1.78393 1.03702
-4.17641 1.65356 1.03702
-4.22629 1.52156 1.03702
-4.25347 1.38203 1.03253
-4.29478 1.24775 1.03253
-4.33185 1.11223 1.03253
-4.36465 0.975615 1.03253
-4.39314 0.838037 1.03253
-4.43654 0.70268 1.03702
-4.45643 0.562977 1.03702
-4.47191 0.42272 1.03702
-4.48298 0.282046 1.03702
-4.48963 0.141093 1.03702
-4.46262 5.46513e-16 1.03028
-4.46041 -0.140174 1.03028
-4.45381 -0.28021 1.03028
-4.44281 -0.419969 1.03028
-4.43709 -0.560535 1.03253
-4.4173 -0.699631 1.03253
-4.39314 -0.838037 1.03253
-4.36465 -0.975615 1.03253
-4.33185 -1.11223 1.03253
-4.33221 -1.25862 1.04152
-4.24463 -1.52816 1.04152
-4.19453 -1.66073 1.04152
-4.12241 -1.78393 1.03702
-4.00226 -2.03926 1.03702
-3.93623 -2.16396 1.03702
-3.86632 -2.28654 1.03702
-3.79259 -2.40685 1.03702
-3.70706 -2.51932 1.03477
-3.6261 -2.63451 1.03477
-3.6261 -2.63451 1.03477
-3.54156 -2.74711 1.03477
-3.45352 -2.857 1.03477
-3.36207 -2.96407 1.03477
-3.26731 -3.06821 1.03477
-3.16932 -3.16932 1.03477
-3.06821 -3.26731 1.03477
-2.96407 -3.36207 1.03477
-2.857 -3.45352 1.03477
-2.74711 -3.54156 1.03477
-2.63451 -3.6261 1.03477
-2.51932 -3.70706 1.03477
-2.39641 -3.77614 1.03253
-2.27662 -3.84955 1.03253
-2.15458 -3.91916 1.03253
-2.03041 -3.9849 1.03253
-1.89594 -4.02908 1.02803
-1.76845 -4.08664 1.02803
-1.63921 -4.14017 1.02803
-1.50836 -4.18962 1.02803
-1.37601 -4.23493 1.02803
-1.2559 -4.32285 1.03927
-1.1195 -4.36016 1.03927
-0.981992 -4.39318 1.03927
-0.843513 -4.42185 1.03927
-0.698107 -4.40767 1.03028
-0.559315 -4.42743 1.03028
-0.419969 -4.44281 1.03028
-0.28021 -4.45381 1.03028
-0.140173 -4.46041 1.03028
0.141397 -4.49937 1.03927
0.282658 -4.49271 1.03927
0.423637 -4.48161 1.03927
0.704204 -4.44617 1.03927
0.843513 -4.42185 1.03927
0.981992 -4.39318 1.03927
1.24231 -4.27606 1.02803
1.37601 -4.23493 1.02803
1.63921 -4.14017 1.02803
1.76845 -4.08664 1.02803
1.90424 -4.04671 1.03253
2.15457 -3.91916 1.03253
2.27662 -3.84955 1.03253
2.42251 -3.81727 1.04377
2.65742 -3.65763 1.04377
2.771 -3.57235 1.04377
2.88184 -3.48355 1.04377
3.05487 -3.25311 1.03028
3.15555 -3.15555 1.03028
3.25311 -3.05487 1.03028
3.34746 -2.95118 1.03028
3.46853 -2.86942 1.03927
3.55695 -2.75906 1.03927
3.64186 -2.64597 1.03927
3.72318 -2.53027 1.03927
3.79259 -2.40685 1.03702
3.86632 -2.28654 1.03702
3.93624 -2.16396 1.03702
4.00226 -2.03926 1.03702
4.06434 -1.91254 1.03702
4.08664 -1.76845 1.02803
4.14017 -1.63921 1.02803
4.18962 -1.50836 1.02803
4.23493 -1.37601 1.02803
4.27606 -1.24231 1.02803
4.3696 -1.12192 1.04152
4.40269 -0.984117 1.04152
4.43143 -0.845339 1.04152
4.45579 -0.705728 1.04152
4.46609 -0.5642 1.03927
4.48161 -0.423637 1.03927
4.49271 -0.282658 1.03927
4.49937 -0.141397 1.03927
4.50159 -1.10257e-15 1.03927
4.45146 0.139893 1.11042
4.44487 0.279647 1.11042
4.43389 0.419126 1.11042
4.41854 0.558191 1.11042
4.41799 0.699741 1.11526
4.39383 0.838169 1.11526
4.36534 0.975769 1.11526
4.33253 1.11241 1.11526
4.29545 1.24794 1.11526
4.21722 1.37026 1.10558
4.12286 1.63236 1.10558
4.06955 1.76105 1.10558
4.01223 1.88801 1.10558
3.88576 2.13622 1.10558
3.81675 2.25722 1.10558
3.74396 2.37599 1.10558
3.61878 2.6292 1.11526
3.53441 2.74157 1.11526
3.44655 2.85124 1.11526
3.2678 3.06866 1.11768
3.16979 3.16979 1.11768
3.06866 3.2678 1.11768
2.83268 3.42413 1.108
2.72373 3.51141 1.108
2.49787 3.67551 1.108
2.38119 3.75215 1.108
2.27697 3.85015 1.11526
2.15491 3.91978 1.11526
2.03073 3.98553 1.11526
1.90454 4.04735 1.11526
1.77647 4.10517 1.11526
1.63593 4.13188 1.108
1.50534 4.18123 1.108
1.37326 4.22645 1.108
1.23982 4.2675 1.108
1.10517 4.30434 1.108
0.969418 4.33693 1.108
0.832714 4.36524 1.108
0.695188 4.38924 1.108
0.556975 4.40891 1.108
0.418213 4.42423 1.108
0.279038 4.43519 1.108
0.139588 4.44176 1.108
2.72114e-16 4.44395 1.108
-0.139588 4.44176 1.108
-0.279038 4.43519 1.108
-0.418213 4.42423 1.108
-0.556975 4.40891 1.108
-0.695188 4.38924 1.108
-0.829078 4.34618 1.10316
-0.965185 4.31799 1.10316
-1.10034 4.28554 1.10316
-1.23441 4.24887 1.10316
-1.36726 4.208 1.10316
-1.50862 4.19036 1.11042
-1.6395 4.14091 1.11042
-1.76876 4.08736 1.11042
-1.89627 4.02979 1.11042
-2.02192 3.96824 1.11042
-2.14557 3.90277 1.11042
-2.2671 3.83345 1.11042
-2.38639 3.76035 1.11042
-2.6235 3.61093 1.11284
-2.73563 3.52675 1.11284
-2.84505 3.43908 1.11284
-3.06202 3.26072 1.11526
-3.16293 3.16293 1.11526
-3.35529 2.95809 1.11526
-3.44655 2.85124 1.11526
-3.40917 2.82031 1.10316
-3.57954 2.60068 1.10316
-3.65946 2.48696 1.10316
-3.73577 2.37079 1.10316
-3.80839 2.25228 1.10316
-3.8418 2.27204 1.11284
-3.91127 2.15024 1.11284
-3.97688 2.02632 1.11284
-4.03857 1.90041 1.11284
-4.09627 1.77261 1.11284
-4.13188 1.63593 1.108
-4.18123 1.50534 1.108
-4.22645 1.37326 1.108
-4.2675 1.23982 1.108
-4.30434 1.10517 1.108
-4.38428 0.980002 1.1201
-4.4129 0.841805 1.1201
-4.43716 0.702777 1.1201
-4.45705 0.563055 1.1201
-4.43389 0.419126 1.11042
-4.44487 0.279648 1.11042
-4.45146 0.139893 1.11042
-4.45366 5.45416e-16 1.11042
-4.45146 -0.139893 1.11042
-4.45455 -0.280257 1.11284
-4.44355 -0.420039 1.11284
-4.42817 -0.559407 1.11284
-4.40841 -0.698223 1.11284
-4.3843 -0.836351 1.11284
-4.35587 -0.973652 1.11284
-4.32314 -1.10999 1.11284
-4.28614 -1.24524 1.11284
-4.24491 -1.37925 1.11284
-4.22688 -1.52177 1.1201
-4.17699 -1.65379 1.1201
-4.12298 -1.78417 1.1201
-3.95959 -2.01751 1.108
-3.89427 -2.14089 1.108
-3.8251 -2.26216 1.108
-3.67551 -2.49787 1.108
-3.59523 -2.61209 1.108
-3.51141 -2.72373 1.108
-3.33346 -2.93884 1.108
-3.26072 -3.06202 1.11526
-3.06202 -3.26072 1.11526
-2.95809 -3.35529 1.11526
-2.85124 -3.44655 1.11526
-2.73563 -3.52675 1.11284
-2.6235 -3.61093 1.11284
-2.50878 -3.69156 1.11284
-2.39159 -3.76854 1.11284
-2.27204 -3.8418 1.11284
-2.15024 -3.91127 1.11284
-2.02632 -3.97688 1.11284
-1.90041 -4.03857 1.11284
-1.77261 -4.09627 1.11284
-1.77261 -4.09627 1.11284
-1.5152 -4.20862 1.11526
-1.5152 -4.20862 1.11526
-1.38225 -4.25414 1.11526
-1.11241 -4.33253 1.11526
-0.975769 -4.36534 1.11526
-0.836349 -4.3843 1.11284
-0.698223 -4.40841 1.11284
-0.698223 -4.40841 1.11284
-0.559408 -4.42817 1.11284
-0.420039 -4.44355 1.11284
-0.280866 -4.46424 1.11526
-0.140501 -4.47086 1.11526
-8.21688e-16 -4.47306 1.11526
0.140501 -4.47086 1.11526
0.279648 -4.44487 1.11042
0.419126 -4.43389 1.11042
0.558192 -4.41854 1.11042
0.696706 -4.39883 1.11042
0.834531 -4.37477 1.11042
0.967303 -4.32746 1.10558
1.10275 -4.29494 1.10558
1.23712 -4.25818 1.10558
1.37026 -4.21722 1.10558
1.50205 -4.1721 1.10558
1.76105 -4.06956 1.10558
1.88801 -4.01223 1.10558
2.01311 -3.95095 1.10558
2.25228 -3.80839 1.10316
2.37079 -3.73577 1.10316
2.48697 -3.65946 1.10316
2.74752 -3.54208 1.11768
2.85742 -3.45403 1.11768
2.96451 -3.36257 1.11768
3.15607 -3.15607 1.11284
3.25365 -3.05538 1.11284
3.34802 -2.95167 1.11284
3.43908 -2.84505 1.11284
3.52675 -2.73562 1.11284
3.60308 -2.61779 1.11042
3.68353 -2.50333 1.11042
3.76035 -2.38639 1.11042
3.83345 -2.2671 1.11042
3.89427 -2.14089 1.108
3.95959 -2.01751 1.108
4.02101 -1.89214 1.108
4.07846 -1.76491 1.108
4.13188 -1.63593 1.108
4.19036 -1.50862 1.11042
4.23568 -1.37626 1.11042
4.27682 -1.24253 1.11042
4.31374 -1.10758 1.11042
4.35587 -0.973652 1.11284
4.3843 -0.836349 1.11284
4.40841 -0.698223 1.11284
4.42817 -0.559408 1.11284
4.44355 -0.420039 1.11284
4.45455 -0.280257 1.11284
4.46116 -0.140197 1.11284
4.46336 -1.09321e-15 1.11284
4.44107 0.139566 1.19057
4.43449 0.278995 1.19057
4.44277 0.419966 1.19574
4.42739 0.559309 1.19574
4.40764 0.698101 1.19574
4.38353 0.836204 1.19574
4.29854 0.960838 1.18021
4.26624 1.09538 1.18021
4.22973 1.22885 1.18021
4.18904 1.3611 1.18021
4.14422 1.49201 1.18021
4.11328 1.62856 1.18539
4.0029 1.88362 1.18539
3.94176 2.00843 1.18539
3.84113 2.27164 1.19574
3.76788 2.39117 1.19574
3.69091 2.50834 1.19574
3.50323 2.71738 1.18798
3.41615 2.82608 1.18798
3.32569 2.93199 1.18798
3.13503 3.13503 1.18798
3.03501 3.23196 1.18798
2.82608 3.41615 1.18798
2.71738 3.50323 1.18798
2.60033 3.57904 1.18539
2.37047 3.73526 1.18539
2.25197 3.80787 1.18539
2.13125 3.87673 1.18539
2.00843 3.94176 1.18539
1.88362 4.0029 1.18539
1.75696 4.06009 1.18539
1.62856 4.11328 1.18539
1.49856 4.1624 1.18539
1.36707 4.20742 1.18539
1.23424 4.24828 1.18539
1.10019 4.28495 1.18539
0.965053 4.3174 1.18539
0.827154 4.33609 1.1828
0.690546 4.35993 1.1828
0.553256 4.37947 1.1828
0.415421 4.39469 1.1828
0.277175 4.40557 1.1828
0.13896 4.42176 1.18539
2.70888e-16 4.42394 1.18539
-0.13896 4.42176 1.18539
-0.277781 4.41521 1.18539
-0.41633 4.40431 1.18539
-0.550835 4.36031 1.17763
-0.687524 4.34085 1.17763
-0.823534 4.31712 1.17763
-0.958731 4.28912 1.17763
-1.10019 4.28495 1.18539
-1.23424 4.24828 1.18539
-1.36707 4.20742 1.18539
-1.49856 4.1624 1.18539
-1.62856 4.11328 1.18539
-1.76847 4.08669 1.19316
-1.89596 4.02912 1.19316
-2.02158 3.96758 1.19316
-2.14521 3.90212 1.19316
-2.27655 3.84944 1.19833
-2.39634 3.77603 1.19833
-2.51377 3.6989 1.19833
-2.74107 3.53376 1.19833
-2.83224 3.42359 1.19057
-2.93838 3.33294 1.19057
-3.14186 3.14186 1.19057
-3.23196 3.03501 1.18798
-3.32569 2.93199 1.18798
-3.41615 2.82608 1.18798
-3.50323 2.71738 1.18798
-3.58686 2.606 1.18798
-3.66694 2.49205 1.18798
-3.74341 2.37564 1.18798
-3.81619 2.25689 1.18798
-3.88519 2.1359 1.18798
-3.94176 2.00843 1.18539
-4.0029 1.88362 1.18539
-4.06009 1.75696 1.18539
-4.11328 1.62856 1.18539
-4.1624 1.49856 1.18539
-4.2166 1.37006 1.18798
-4.25756 1.23693 1.18798
-4.29431 1.10259 1.18798
-4.32682 0.96716 1.18798
-4.35507 0.830774 1.18798
-4.34085 0.687524 1.17763
-4.36031 0.550835 1.17763
-4.37546 0.413602 1.17763
-4.38629 0.275962 1.17763
-4.45072 0.13987 1.19316
-4.45292 5.45325e-16 1.19316
-4.45072 -0.13987 1.19316
-4.44413 -0.279602 1.19316
-4.43316 -0.419056 1.19316
-4.42739 -0.559309 1.19574
-4.40764 -0.698101 1.19574
-4.38353 -0.836204 1.19574
-4.3551 -0.973482 1.19574
-4.28495 -1.10019 1.18539
-4.24828 -1.23424 1.18539
-4.20742 -1.36707 1.18539
-4.1624 -1.49856 1.18539
-4.11328 -1.62856 1.18539
-4.09555 -1.7723 1.19574
-3.97619 -2.02597 1.19574
-3.91059 -2.14986 1.19574
-3.81619 -2.25689 1.18798
-3.66694 -2.49205 1.18798
-3.58686 -2.606 1.18798
-3.4956 -2.71146 1.18539
-3.31845 -2.9256 1.18539
-3.22491 -3.0284 1.18539
-3.02178 -3.21787 1.1828
-2.81377 -3.40126 1.1828
-2.70554 -3.48797 1.1828
-2.59465 -3.57123 1.1828
-2.59465 -3.57123 1.1828
-2.49205 -3.66694 1.18798
-2.37564 -3.74341 1.18798
-2.25689 -3.81619 1.18798
-2.1359 -3.88519 1.18798
-2.01281 -3.95037 1.18798
-1.87951 -3.99416 1.1828
-1.75312 -4.05123 1.1828
-1.62501 -4.10429 1.1828
-1.49528 -4.15331 1.1828
-1.3611 -4.18904 1.18021
-1.22885 -4.22973 1.18021
-1.09538 -4.26624 1.18021
-0.960839 -4.29854 1.18021
-0.825343 -4.3266 1.18021
-0.693568 -4.37901 1.18798
-0.555678 -4.39864 1.18798
-0.417238 -4.41392 1.18798
-0.278389 -4.42485 1.18798
-0.139262 -4.43141 1.18798
-8.17988e-16 -4.45292 1.19316
0.139869 -4.45072 1.19316
0.279602 -4.44413 1.19316
0.419056 -4.43316 1.19316
0.555678 -4.39864 1.18798
0.693568 -4.37901 1.18798
0.830773 -4.35507 1.18798
0.96716 -4.32682 1.18798
1.10259 -4.29431 1.18798
1.23424 -4.24828 1.18539
1.36707 -4.20742 1.18539
1.49856 -4.1624 1.18539
1.62856 -4.11328 1.18539
1.77614 -4.10442 1.19833
1.90419 -4.0466 1.19833
2.15452 -3.91905 1.19833
2.27655 -3.84944 1.19833
2.48119 -3.65097 1.1828
2.59465 -3.57123 1.1828
2.70554 -3.48797 1.1828
2.91922 -3.3112 1.1828
3.02178 -3.21787 1.1828
3.12137 -3.12137 1.1828
3.22491 -3.0284 1.18539
3.4087 -2.81993 1.18539
3.4956 -2.71146 1.18539
3.57904 -2.60033 1.18539
3.65895 -2.48662 1.18539
3.74341 -2.37564 1.18798
3.81619 -2.25689 1.18798
3.88519 -2.1359 1.18798
3.95037 -2.01281 1.18798
4.01164 -1.88774 1.18798
4.06896 -1.76079 1.18798
4.12226 -1.63212 1.18798
4.17149 -1.50183 1.18798
4.2166 -1.37006 1.18798
4.25756 -1.23694 1.18798
4.24828 -1.23424 1.18539
4.28495 -1.10019 1.18539
4.3174 -0.965053 1.18539
4.34558 -0.828963 1.18539
4.35993 -0.690546 1.1828
4.37947 -0.553257 1.1828
4.39469 -0.41542 1.1828
4.40557 -0.277175 1.1828
4.4121 -0.138655 1.1828
4.40462 -1.07882e-15 1.18021
4.38119 0.137684 1.25691
4.3747 0.275233 1.25691
4.3639 0.41251 1.25691
4.40601 0.556608 1.27344
4.36237 0.832166 1.27344
4.33407 0.96878 1.27344
4.30151 1.10444 1.27344
4.26469 1.23901 1.27344
4.17796 1.3575 1.25966
4.17796 1.3575 1.25966
4.13326 1.48806 1.25966
4.08448 1.61716 1.25966
4.04931 1.75229 1.26518
3.93129 2.00309 1.26518
3.86643 2.12559 1.26518
3.74157 2.37447 1.27069
3.66514 2.49083 1.27069
3.58509 2.60472 1.27069
3.41447 2.82469 1.27069
3.28079 2.89241 1.25415
3.18832 2.99403 1.25415
2.99403 3.18832 1.25415
2.91148 3.30242 1.26242
2.69837 3.47872 1.26242
2.58777 3.56176 1.26242
2.47462 3.64129 1.26242
2.47462 3.64129 1.26242
2.35387 3.7091 1.25966
2.2362 3.78121 1.25966
2.11633 3.84959 1.25966
1.99436 3.91416 1.25966
1.87043 3.97487 1.25966
1.74084 4.02284 1.25691
1.61362 4.07554 1.25691
1.48481 4.12421 1.25691
1.35453 4.16882 1.25691
1.22292 4.20931 1.25691
1.09966 4.28288 1.26793
0.964586 4.31531 1.26793
0.828564 4.34348 1.26793
0.691723 4.36736 1.26793
0.555404 4.39647 1.27069
0.417033 4.41175 1.27069
0.278251 4.42267 1.27069
0.139194 4.42923 1.27069
2.71346e-16 4.43142 1.27069
-0.138591 4.41001 1.26518
-0.277044 4.40348 1.26518
-0.415224 4.39261 1.26518
-0.552994 4.3774 1.26518
-0.685708 4.32939 1.25691
-0.821359 4.30571 1.25691
-0.956199 4.27779 1.25691
-1.0901 4.24564 1.25691
-1.22292 4.20931 1.25691
-1.36344 4.19624 1.26518
-1.49458 4.15135 1.26518
-1.62424 4.10235 1.26518
-1.75229 4.04931 1.26518
-1.87043 3.97487 1.25966
-1.99436 3.91416 1.25966
-2.11633 3.84959 1.25966
-2.35387 3.7091 1.25966
-2.48002 3.64924 1.26518
-2.59342 3.56954 1.26518
-2.81244 3.39965 1.26518
-2.88605 3.27358 1.25139
-3.0859 3.0859 1.25139
-3.18131 2.98745 1.25139
-3.39965 2.81244 1.26518
-3.48632 2.70426 1.26518
-3.56954 2.59342 1.26518
-3.64924 2.48002 1.26518
-3.72534 2.36417 1.26518
-3.80603 2.25088 1.26793
-3.87486 2.13022 1.26793
-3.93986 2.00746 1.26793
-4.00097 1.88271 1.26793
